ply
format ascii 1.0
comment PCL generated
element vertex 667
property float x
property float y
property float z
property float nx
property float ny
property float nz
property float curvature
element camera 0
property float view_px
property float view_py
property float view_pz
property float x_axisx
property float x_axisy
property float x_axisz
property float y_axisx
property float y_axisy
property float y_axisz
property float z_axisx
property float z_axisy
property float z_axisz
property float focal
property float scalex
property float scaley
property float centerx
property float centery
property int viewportx
property int viewporty
property float k1
property float k2
end_header
-0.55578107 0.47931856 1.4137484 -0.36679125 0.064125575 -0.92809063 0.0022872365
-0.54383528 0.47735265 1.4079499 -0.37927875 0.076620638 -0.9221046 0.0023835588
-0.53249019 0.47585234 1.4035249 -0.38861999 0.086949073 -0.9172864 0.0028058123
-0.52245641 0.47549021 1.4024568 -0.38575575 0.09006308 -0.91819447 0.0025535959
-0.51037276 0.47321391 1.3957428 -0.3683503 0.087136075 -0.92559457 0.0021366938
-0.49723163 0.46985117 1.3858243 -0.38318488 0.079489127 -0.92024499 0.0023496251
-0.48578402 0.46798873 1.3803312 -0.39578333 0.075699665 -0.91521859 0.0025779502
-0.47630736 0.46798873 1.3803312 -0.3905994 0.074759245 -0.91752017 0.0028460729
-0.4650245 0.46617803 1.3749905 -0.3664214 0.069896057 -0.92781997 0.0024994339
-0.45381498 0.46436733 1.3696498 -0.36101416 0.062756754 -0.93044633 0.0018200004
-0.44267878 0.46255663 1.3643092 -0.36629915 0.061177701 -0.92848384 0.0019659526
-0.43331215 0.46255663 1.3643092 -0.3724089 0.059136622 -0.92618275 0.0019774933
-0.42228594 0.46074593 1.3589685 -0.36551106 0.058283839 -0.92898053 0.0021159414
-0.41295594 0.46074593 1.3589685 -0.35730389 0.055732016 -0.93232381 0.0018223142
-0.40054417 0.457228 1.3485924 -0.35339817 0.055012438 -0.93385404 0.0020486459
-0.38978013 0.45546901 1.3434043 -0.36668578 0.052952603 -0.9288367 0.001521051
-0.37908736 0.45371005 1.3382162 -0.36457968 0.051828977 -0.92972869 0.0014378255
-0.36989984 0.45371005 1.3382162 -0.36293918 0.05026025 -0.9304564 0.00098805607
-0.35935503 0.45200282 1.3331808 -0.35679555 0.049000695 -0.93289655 0.00040138527
-0.34915996 0.45065773 1.3292134 -0.36492074 0.046298135 -0.92988676 0.00076797517
-0.33847287 0.44858837 1.3231097 -0.39380196 0.04266642 -0.91820461 0.0012849087
-0.32938907 0.44858837 1.3231097 -0.41080654 0.034828722 -0.91105711 0.0010736968
-0.31912321 0.44693285 1.3182269 -0.41889057 0.030019274 -0.90754038 0.0011132784
-0.30809888 0.44408748 1.3098345 -0.41120341 0.022400411 -0.91126835 0.0011713798
-0.29767761 0.44196635 1.3035783 -0.4076061 0.02087017 -0.91291928 0.00071886124
-0.28764638 0.44031087 1.2986953 -0.40134126 0.029100247 -0.91546619 0.00094300351
-0.277715 0.43870711 1.2939651 -0.39012727 0.032450434 -0.92018896 0.00095114001
-0.26883128 0.43870711 1.2939651 -0.36721233 0.029892985 -0.92965662 0.00083897688
-0.25899732 0.43710333 1.2892348 -0.35783461 0.025771689 -0.93342936 0.0009271584
-0.24922828 0.43549958 1.2845044 -0.36248502 0.031990688 -0.93144041 0.00072964543
-0.2395242 0.4338958 1.2797742 -0.38060817 0.043861911 -0.92369556 0.0013558721
-0.22991259 0.43234378 1.2751964 -0.39654452 0.045220267 -0.91690105 0.0021422147
-0.22195166 0.4338958 1.2797742 -0.41230011 0.045244537 -0.90992397 0.0033087446
-0.21240291 0.43234378 1.2751964 -0.45178512 0.051407881 -0.89064443 0.0074778632
-0.20216158 0.42918798 1.2658885 -0.56366038 0.051649295 -0.82439029 0.020833524
-0.19181485 0.42551485 1.2550546 -0.6882121 0.080310404 -0.7210508 0.031596214
-0.18088187 0.42013448 1.2391852 -0.76282436 0.13926212 -0.63143092 0.029902067
-0 0 0 0 0 0 0
-0 0 0 0 0 0 0
-0.12207192 0.33011675 0.97367817 -0.6161865 -0.22689566 -0.75420988 0.15949178
-0.11484466 0.32856473 0.96910048 -0.56350565 -0.25285643 -0.78646362 0.15191083
-0.10781653 0.32742655 0.96574348 -0.5067445 -0.020259105 -0.86185825 0.12693757
-0.10070661 0.32587454 0.96116579 -0.44801617 -0.18700956 -0.87424767 0.13717203
-0.093853757 0.32499504 0.95857173 -0.46823412 -0.12289673 -0.87501615 0.12704064
-0.08703652 0.32411557 0.95597774 -0.42802513 -0.062093541 -0.9016313 0.11848935
-0.080473267 0.32411557 0.95597774 -0.39243144 -0.040897015 -0.91887164 0.1211253
-0.073709466 0.32323608 0.95338368 -0.36255744 -0.028315611 -0.93153119 0.12028018
-0.067164019 0.32323608 0.95338368 -0.34502617 -0.19798173 -0.91747481 0.14031726
-0.060288709 0.32147712 0.94819564 -0.35306582 -0.23492856 -0.90562308 0.13742884
-0.05363176 0.32059762 0.94560158 -0.34991086 -0.25691748 -0.90086389 0.12711307
-0.047018036 0.31976989 0.94316012 -0.33184361 -0.30324531 -0.89326483 0.13471524
-0.040542785 0.31976989 0.94316012 -0.31995007 -0.46198565 -0.82716459 0.14085262
-0.03406753 0.31976989 0.94316012 -0.35442534 -0.40267423 -0.84394079 0.14486778
-0.027516389 0.31889039 0.94056612 -0.39829403 -0.21922971 -0.890674 0.1176767
-0.021004284 0.31806266 0.93812466 -0.40649551 -0.24382305 -0.88051784 0.10738802
-0.014563602 0.31806266 0.93812466 -0.3997567 -0.31982812 -0.85901368 0.10025479
-0.0081453817 0.31894213 0.94071871 -0.41214579 -0.29648688 -0.86152846 0.10064103
-0.0016860702 0.31878692 0.94026095 -0.4251833 -0.34607303 -0.83633286 0.087793328
0.004746832 0.31728664 0.93583584 -0.40556362 -0.36667266 -0.83729887 0.071415551
0.011191837 0.31785572 0.93751431 -0.41039518 -0.38553122 -0.82640278 0.069376536
0.017639805 0.31806266 0.93812466 -0.37933755 -0.35222742 -0.85559273 0.055052962
0.024037402 0.31749356 0.93644619 -0.37245512 -0.38728356 -0.84337926 0.049617123
0.030436773 0.31718317 0.9355306 -0.37184751 -0.38773215 -0.84344131 0.047420923
0.036757439 0.31630367 0.93293661 -0.35071599 -0.39024031 -0.85129946 0.044311233
0.042865999 0.31413084 0.9265278 -0.33870423 -0.42002317 -0.8419382 0.037418157
0.049137883 0.31356177 0.92484933 -0.33388388 -0.43401182 -0.83675283 0.034934118
0.055203624 0.31195799 0.92011905 -0.33079249 -0.43259773 -0.83871067 0.034172274
0.061286032 0.3107681 0.91660947 -0.34755844 -0.41054246 -0.84300536 0.031778365
0.067488998 0.31035423 0.9153887 -0.37143016 -0.40173942 -0.83704543 0.030408315
0.073330872 0.3084918 0.90989548 -0.38664517 -0.38168728 -0.83953583 0.032860439
0.079284154 0.30735365 0.90653849 -0.36589381 -0.35494167 -0.86031282 0.035191562
0.085292086 0.30657762 0.90424961 -0.37369603 -0.30848736 -0.8747496 0.036055919
0.091145068 0.30538774 0.90074009 -0.383652 -0.28810972 -0.87738472 0.036699418
0.097147718 0.30481866 0.89906156 -0.39626539 -0.23763911 -0.88684911 0.032722905
0.10312732 0.30424958 0.89738309 -0.39781877 -0.22352131 -0.88981932 0.029417034
0.10904671 0.30357704 0.89539939 -0.40555045 -0.20936319 -0.88977289 0.026023423
0.11509591 0.30331835 0.89463645 -0.41510546 -0.17287938 -0.89319658 0.02243617
0.12063834 0.30181807 0.89021134 -0.42142022 -0.13920018 -0.89611846 0.019033536
0.12642418 0.30104205 0.88792247 -0.4302685 -0.12233002 -0.89437371 0.019405289
0.13222414 0.3003695 0.88593882 -0.43916383 -0.10045765 -0.89277291 0.01675285
0.13785394 0.29938656 0.88303959 -0.44293141 -0.11336009 -0.88936001 0.020136135
0.14331958 0.29814494 0.87937742 -0.43649423 -0.07683377 -0.8964203 0.022381544
0.14896819 0.29736891 0.87708861 -0.41790456 -0.070808515 -0.90572733 0.027618321
0.15358768 0.29467875 0.86915392 -0.43573684 -0.081227623 -0.89640141 0.027567305
0.15983497 0.29519609 0.8706798 -0.34237689 -0.089429356 -0.93529695 0.044436961
0 0 0 0 0 0 0
0 0 0 0 0 0 0
0.19474712 0.32339129 0.95384145 0.030641198 -0.99918509 -0.026273523 0.00080001348
0.20107029 0.32302913 0.95277333 0.027769785 -0.99926341 -0.026483987 0.00076928362
0.20830978 0.32411557 0.95597774 0.025890602 -0.99934262 -0.025377376 0.0007844058
0.21538749 0.32489157 0.95826656 0.024307841 -0.99940652 -0.024410022 0.00076886686
0.22080009 0.32318434 0.9532311 0.02447564 -0.99936408 -0.025928948 0.00078221748
0.22850904 0.32483986 0.95811397 0.023878573 -0.99946159 -0.022500273 0.00083912152
0.23493719 0.32463291 0.95750362 0.024204027 -0.99943328 -0.023391964 0.00083152915
0.24116454 0.32416731 0.95613033 0.0084466152 -0.99994242 -0.0066161104 0.0028836746
0.24863814 0.3253572 0.95963991 -0.010670264 -0.99982405 0.015427441 0.0076586548
0.25547004 0.32566759 0.96055543 -0.026080543 -0.99907029 0.034327473 0.010507133
0.26181492 0.3253572 0.95963991 -0.024859235 -0.99891627 0.039347474 0.011653837
0.26874477 0.32577106 0.96086061 -0.026167717 -0.9985469 0.047109734 0.0098916832
0.27660957 0.32727137 0.96528572 0.013887935 -0.99990344 0.00027372429 0.0044280509
0.28390834 0.32804736 0.9675746 -0.11236522 -0.99311966 -0.032976042 0.03546039
0.28839761 0.32561585 0.96040285 -0.060912929 -0.99738604 0.038867671 0.013782379
0.27211934 0.3003695 0.88593882 -0.56560534 -0.095757112 -0.81909776 0.071632802
0.27690801 0.2989727 0.88181889 -0.58923554 -0.064285107 -0.80539995 0.049100291
0.28159115 0.29752412 0.87754637 -0.62092447 -0.0337498 -0.78314352 0.020913243
0.28676572 0.29664463 0.87495232 -0.65536189 -0.004213498 -0.75530332 0.0091270329
0.29139411 0.29524782 0.87083238 -0.66994351 0.035680685 -0.7415542 0.0008277857
0.29586169 0.29374751 0.86640728 -0.67543977 0.044814672 -0.7360521 0.00044959676
0.300428 0.29240242 0.86243993 -0.67409188 0.046715762 -0.73716885 0.00036656178
0.3042894 0.29043651 0.85664147 -0.67428011 0.045513488 -0.73707175 0.0008962506
0.30856842 0.28893623 0.85221636 -0.66260797 0.046306331 -0.74753356 0.0027280585
0.31346223 0.28805673 0.84962237 -0.5880003 0.05802926 -0.80677646 0.03055411
0.31746027 0.28640124 0.84473944 -0.55686069 0.049275544 -0.82914293 0.032473046
0.3219752 0.28526309 0.84138244 -0.5126816 0.055494409 -0.85678351 0.03928956
0.32620627 0.28391799 0.8374151 -0.43605942 0.057692524 -0.8980667 0.049514379
0.33213699 0.2840732 0.83787286 -0.35871741 0.0069677164 -0.93342018 0.10220284
0.34275067 0.2881602 0.84992754 0.44284397 0.089078583 -0.89216268 0.13234606
0.35628352 0.29452354 0.86869609 0.62857223 -0.080745563 -0.77354836 0.04202836
0.36708343 0.29845533 0.88029295 0.67657042 -0.063647501 -0.73362219 0.042919416
0 0 0 0 0 0 0
0 0 0 0 0 0 0
0 0 0 0 0 0 0
0 0 0 0 0 0 0
0 0 0 0 0 0 0
0.36985549 0.27367461 0.80720228 -0.54541504 0.11094313 -0.83079123 0.014166808
0.37546831 0.27372634 0.80735487 -0.50894898 0.11456467 -0.8531388 0.012401299
0.379787 0.27284685 0.80476081 -0.33019781 0.12640952 -0.93540901 0.005554595
0.38531208 0.27284685 0.80476081 -0.19413531 0.13284065 -0.97193873 0.0014522919
0 0 0 0 0 0 0
0 0 0 0 0 0 0
0 0 0 0 0 0 0
0 0 0 0 0 0 0
0 0 0 0 0 0 0
0 0 0 0 0 0 0
0 0 0 0 0 0 0
0 0 0 0 0 0 0
0 0 0 0 0 0 0
0 0 0 0 0 0 0
0 0 0 0 0 0 0
-0 0 0 0 0 0 0
-0 0 0 0 0 0 0
-0 0 0 0 0 0 0
-0 0 0 0 0 0 0
-0 0 0 0 0 0 0
-0 0 0 0 0 0 0
-0 0 0 0 0 0 0
-0 0 0 0 0 0 0
-0 0 0 0 0 0 0
-0.69169956 0.50316906 1.4546425 -0.23409083 -0.01540923 -0.97209263 0.0052206418
-0.68171275 0.50316906 1.4546425 -0.24468172 -0.0095741292 -0.96955615 0.0058837342
-0.67172593 0.50316906 1.4546425 -0.24911669 -0.0051117055 -0.96846002 0.0058933478
-0.66160023 0.5030635 1.4543374 -0.24989417 0.0034155587 -0.96826714 0.0064155082
-0.64908588 0.50111055 1.4486915 -0.27335358 0.0082732821 -0.96187806 0.0053004525
-0.63826478 0.50042439 1.4467078 -0.28161946 0.017266244 -0.95937085 0.005348675
-0.62402469 0.49699357 1.4367895 -0.32432657 0.03220778 -0.94539666 0.0028585664
-0.61416042 0.49699357 1.4367895 -0.33152443 0.042603407 -0.94248426 0.0026572461
-0.60429615 0.49699357 1.4367895 -0.33459935 0.048706945 -0.9411009 0.0030468816
-0.59196985 0.49493507 1.4308385 -0.3504923 0.058820248 -0.9347167 0.0030119217
-0.57984936 0.49298215 1.4251926 -0.3555105 0.060025938 -0.93274277 0.002696594
-0.57000369 0.49292937 1.42504 -0.35247785 0.059021816 -0.93395704 0.0028156333
-0.55530119 0.48860127 1.4125277 -0.36262915 0.069766857 -0.92931837 0.0023848158
-0.54383528 0.48701781 1.4079499 -0.37329507 0.076905005 -0.9245196 0.0021243922
-0.53411114 0.48696503 1.4077973 -0.38527936 0.080894575 -0.91924745 0.0023551595
-0.52245641 0.48511764 1.4024568 -0.38062227 0.085240692 -0.92079347 0.002579031
-0.51277202 0.48506486 1.4023041 -0.38360816 0.085024588 -0.91957361 0.0023378334
-0.49723163 0.47936442 1.3858243 -0.38949257 0.083257854 -0.9172588 0.0024177735
-0.48578402 0.47746429 1.3803312 -0.39394909 0.082689449 -0.91540515 0.0024317654
-0.47446448 0.47561693 1.3749905 -0.39225954 0.081238598 -0.91626018 0.0026859073
-0.4650245 0.47561693 1.3749905 -0.37351504 0.077704675 -0.92436385 0.0028525817
-0.45548341 0.47551137 1.3746853 -0.36416575 0.073941201 -0.92839426 0.0023411873
-0.44267878 0.47192219 1.3643092 -0.37090111 0.06280154 -0.92654645 0.0021946477
-0.43331215 0.47192219 1.3643092 -0.37216866 0.062882192 -0.9260326 0.002126849
-0.42228594 0.47007483 1.3589685 -0.36913994 0.056578003 -0.92765003 0.0019067649
-0.41295594 0.47007483 1.3589685 -0.36187267 0.052383699 -0.9307546 0.001649884
-0.40054417 0.46648568 1.3485924 -0.35679927 0.046167132 -0.93303961 0.0021810853
-0.38978013 0.4646911 1.3434043 -0.36716169 0.046400409 -0.92899907 0.0015020891
-0.37908736 0.46289653 1.3382162 -0.36552516 0.046356421 -0.92964643 0.0012604722
-0.36989984 0.46289653 1.3382162 -0.36491761 0.047443651 -0.92983019 0.0011236465
-0.35935503 0.4611547 1.3331808 -0.35599774 0.051658917 -0.93305784 0.00024631596
-0.35020211 0.4611547 1.3331808 -0.36718792 0.046263427 -0.92899555 0.00058694446
-0.33878514 0.45809337 1.3243306 -0.39760754 0.03951354 -0.91670436 0.0011511347
-0.32847738 0.45640436 1.3194476 -0.41107818 0.033784807 -0.91097379 0.00099557196
-0.31912321 0.45598209 1.3182269 -0.42187512 0.031262204 -0.90611482 0.00082261162
-0.30809888 0.4530791 1.3098345 -0.41235432 0.027112961 -0.91061997 0.0011818679
-0.29767761 0.45091504 1.3035783 -0.40806907 0.026553338 -0.91256487 0.00071502576
-0.28801817 0.44980663 1.3003738 -0.40060958 0.026793892 -0.91585702 0.00059772469
-0.277715 0.44758978 1.2939651 -0.38929963 0.032048471 -0.92055345 0.00074450474
-0.26883128 0.44758978 1.2939651 -0.36448967 0.027741091 -0.93079412 0.00048635932
-0.25899732 0.44595355 1.2892348 -0.35691532 0.019195672 -0.93393952 0.00063055463
-0.24922828 0.44431731 1.2845044 -0.36026746 0.018276101 -0.93267 0.0005914123
-0.2395242 0.44268107 1.2797742 -0.36572242 0.027685635 -0.9303121 0.0005978694
-0.22991259 0.44109762 1.2751964 -0.39457339 0.03990357 -0.9179976 0.0018013885
-0.22115774 0.44109762 1.2751964 -0.40881923 0.039602339 -0.91175568 0.0022200807
-0.21161501 0.43946138 1.2704662 -0.50077474 0.051469225 -0.86404604 0.014701465
-0.20216158 0.43787792 1.2658885 -0.56681317 0.044644497 -0.82263589 0.021042176
-0.19181485 0.43413043 1.2550546 -0.69980097 0.060553562 -0.71176678 0.030237535
-0.17974593 0.42594925 1.2314031 -0.7771185 0.1030684 -0.6208573 0.030081775
-0 0 0 0 0 0 0
-0 0 0 0 0 0 0
-0 0 0 0 0 0 0
-0.11533289 0.33664241 0.97322041 -0.66810161 0.24294971 -0.70328921 0.15971842
-0.10819131 0.3352173 0.96910048 -0.47778454 0.023641972 -0.87815887 0.14387548
-0.10145803 0.3349534 0.96833754 -0.47392407 0.031228621 -0.8800118 0.14654669
-0.094092794 0.33241987 0.9610132 -0.46585253 -0.032355156 -0.88427067 0.11559628
-0.087272696 0.33157536 0.95857173 -0.40760115 0.0010764727 -0.91315943 0.11521493
-0.080473267 0.33067808 0.95597774 -0.3875643 0.027654516 -0.92142779 0.1115841
-0.073674075 0.32962242 0.95292592 -0.37252864 0.069440797 -0.92541903 0.11096334
-0.066798531 0.32798618 0.94819564 -0.3538501 0.0089840759 -0.93525898 0.12157972
-0.060123775 0.32708889 0.94560158 -0.35494789 0.044388689 -0.93383169 0.11268962
-0.053493287 0.32624438 0.94316012 -0.34491426 0.081287816 -0.93510777 0.10126346
-0.046767008 0.32450259 0.93812466 -0.33929983 0.068998188 -0.93814433 0.090449572
-0.040326327 0.32450259 0.93812466 -0.35831606 -0.031872973 -0.93305612 0.10667313
-0.033802971 0.32371086 0.93583584 -0.37962401 -0.079436615 -0.92172414 0.11030336
-0.027369076 0.3236053 0.9355306 -0.40053868 -0.12350879 -0.90791762 0.11167503
-0.020891542 0.32276079 0.9330892 -0.40752202 -0.15012138 -0.90077156 0.11316033
-0.01444753 0.32191628 0.93064773 -0.38969985 -0.17466137 -0.9042275 0.10199115
-0.0080595016 0.32196906 0.93080032 -0.39529642 -0.20333838 -0.89576459 0.09984044
-0.001664454 0.32107177 0.92820632 -0.36078516 -0.18638641 -0.91383487 0.074911505
0.0046864618 0.31959388 0.9239338 -0.37044972 -0.3061814 -0.87693781 0.066770576
0.011026072 0.31948832 0.92362857 -0.38073695 -0.32324338 -0.86634463 0.066953398
0.01733567 0.31890774 0.9219501 -0.37156522 -0.36055946 -0.85553271 0.061371278
0.023645721 0.31864381 0.92118716 -0.35463908 -0.41424385 -0.83823222 0.050250769
0.029980047 0.31874937 0.92149234 -0.35847074 -0.38719341 -0.84945863 0.055807024
0.03621636 0.31795764 0.91920346 -0.34109235 -0.41337386 -0.84426183 0.048966441
0.042527139 0.31795764 0.91920346 -0.35923201 -0.40280578 -0.84184319 0.047740586
0.048951417 0.31869659 0.92133975 -0.34838039 -0.40671042 -0.84452224 0.047751784
0.055102918 0.31769374 0.91844052 -0.33024564 -0.42451927 -0.84304279 0.041152678
0.061245222 0.31684923 0.91599905 -0.34939799 -0.42380565 -0.83564931 0.03831102
0.067579001 0.31706035 0.91660947 -0.35903829 -0.41072223 -0.83809233 0.036464378
0.073613718 0.31595194 0.91340506 -0.36333582 -0.42077121 -0.83122724 0.032585528
0.079724543 0.31531855 0.91157395 -0.36347294 -0.40621272 -0.83837855 0.035045531
0.085680693 0.31421015 0.9083696 -0.36021584 -0.38947672 -0.84767473 0.034248333
0.091145068 0.31157106 0.90074009 -0.37507889 -0.37810943 -0.84637403 0.03568726
0.096719027 0.30961812 0.89509422 -0.35813332 -0.36216259 -0.86056888 0.035297647
0.10253111 0.30861527 0.89219499 -0.38334942 -0.33325458 -0.86138529 0.033572651
0.10852637 0.30824581 0.89112687 -0.38278735 -0.31316718 -0.86913753 0.030589115
0.11434993 0.30745408 0.88883805 -0.39356455 -0.28174862 -0.87505692 0.029461805
0.12014206 0.30666235 0.88654917 -0.40061516 -0.24944395 -0.88163775 0.029852645
0.12614174 0.3064512 0.88593882 -0.41900229 -0.21592651 -0.88193697 0.029488368
0.13199641 0.3059234 0.88441288 -0.42843387 -0.19084124 -0.88318974 0.02854803
0.13761573 0.30492055 0.88151371 -0.40660188 -0.20518501 -0.8902663 0.032857683
0.14331958 0.30418161 0.87937742 -0.38494119 -0.17322449 -0.90653932 0.039094325
0.14896819 0.30338988 0.87708861 -0.39525697 -0.15074688 -0.90611655 0.03834632
0.15385734 0.30117303 0.8706798 -0.37858814 -0.15160896 -0.91306388 0.045573823
0.15944281 0.30043408 0.86854351 -0.30466592 -0.16217199 -0.93855155 0.058108028
0 0 0 0 0 0 0
0 0 0 0 0 0 0
0.19107088 0.32371086 0.93583584 0.061656453 -0.99782652 -0.023255326 0.0027041507
0.19833311 0.3250832 0.93980318 0.030247794 -0.99923241 -0.024892082 0.00068087922
0.20518431 0.32571658 0.94163424 0.028050156 -0.99927628 -0.025692113 0.00065445103
0.21099743 0.32471374 0.93873501 0.024836574 -0.9993757 -0.025126992 0.00064298796
0.21797249 0.32550544 0.94102389 0.023085877 -0.99935126 -0.027642248 0.00074935961
0.22519732 0.32661387 0.94422829 0.023038266 -0.99936199 -0.027294591 0.00080776517
0.23085621 0.32545266 0.9408713 0.02133628 -0.99942213 -0.026458252 0.00081616355
0.23777761 0.32608604 0.94270235 0.019231983 -0.99960375 -0.020552492 0.0011590021
0.24381483 0.32550544 0.94102389 0.0037778183 -0.99997342 -0.0062381672 0.0039303917
0.24978842 0.32487208 0.93919277 -0.02246668 -0.99957407 0.018624714 0.011050813
0.25736046 0.32629716 0.9433127 -0.029066844 -0.9991731 0.028428247 0.012679429
0.26477566 0.32745838 0.9466697 -0.028048243 -0.99914652 0.030320652 0.012520012
0.26847658 0.32408035 0.93690395 -0.092756756 -0.99379277 0.061416782 0.024984952
0.2774162 0.32703611 0.94544899 -0.076163046 -0.99514687 0.062305622 0.023358857
0.28354058 0.32661387 0.94422829 -0.10593794 -0.99107915 0.080866091 0.027956374
0.27300987 0.30745408 0.88883805 -0.73476702 -0.20227666 -0.64745772 0.12102615
0.27753091 0.30571228 0.88380253 -0.6306113 -0.15674333 -0.76010585 0.0763539
0.2821787 0.30418161 0.87937742 -0.6153332 -0.096366428 -0.78235453 0.042523723
0.28676572 0.30265093 0.87495232 -0.64624304 -0.062734626 -0.76054865 0.024600845
0.29139411 0.30122581 0.87083238 -0.66551036 -0.022165619 -0.74605942 0.011711461
0.29596591 0.29980069 0.86671245 -0.67484957 0.0045780926 -0.73794109 0.0055934237
0.29984328 0.29774222 0.8607614 -0.67771876 0.01288149 -0.73520833 0.005016814
0.30472299 0.29673937 0.85786223 -0.68285012 0.030078411 -0.72993898 0.0022929455
0.30873415 0.29494479 0.85267413 -0.66328502 0.037149929 -0.74744421 0.0034985715
0.31346223 0.29388914 0.84962237 -0.56975514 0.041826975 -0.82074946 0.037339911
0.31746027 0.29220012 0.84473944 -0.54736155 0.042988803 -0.83579141 0.037326999
0.32226714 0.29130283 0.84214544 -0.50136757 0.057447854 -0.86332512 0.04233893
0.32543355 0.28898042 0.83543146 -0.50468689 0.055079389 -0.86154366 0.042070065
0.33165309 0.28940269 0.83665216 -0.45089972 0.022982309 -0.89227867 0.085195109
0.34342754 0.2945753 0.85160601 0.47222826 -0.021788299 -0.88120693 0.129733
0.356659 0.30080357 0.86961168 0.60779536 -0.096741498 -0.7881788 0.051939372
0.36708343 0.30449829 0.88029295 0.68817765 -0.10114701 -0.71845722 0.060284007
0 0 0 0 0 0 0
0 0 0 0 0 0 0
0 0 0 0 0 0 0
0 0 0 0 0 0 0
0.36575991 0.28032422 0.81040663 -0.55313778 0.109669 -0.82583976 0.017562719
0.37055466 0.27974361 0.80872816 -0.54028976 0.11035476 -0.83421147 0.015266931
0.3768166 0.28027144 0.81025404 -0.53606904 0.11843724 -0.83582455 0.01644334
0.38065115 0.27900466 0.80659187 -0.31501314 0.13325469 -0.93968606 0.0063414867
0.38596961 0.27884632 0.8061341 -0.19376627 0.13841417 -0.97123432 0.0016652406
0 0 0 0 0 0 0
0 0 0 0 0 0 0
0 0 0 0 0 0 0
0 0 0 0 0 0 0
0 0 0 0 0 0 0
0 0 0 0 0 0 0
0 0 0 0 0 0 0
0 0 0 0 0 0 0
0 0 0 0 0 0 0
0 0 0 0 0 0 0
0 0 0 0 0 0 0
-0 0 0 0 0 0 0
-0 0 0 0 0 0 0
-0 0 0 0 0 0 0
-0 0 0 0 0 0 0
-0 0 0 0 0 0 0
-0 0 0 0 0 0 0
-0 0 0 0 0 0 0
-0 0 0 0 0 0 0
-0 0 0 0 0 0 0
-0.69387633 0.51476961 1.4592203 -0.22191034 -0.006892351 -0.9750427 0.0061533386
-0.68171275 0.51315475 1.4546425 -0.22395386 -0.0051519531 -0.97458619 0.0063422057
-0.67172593 0.51315475 1.4546425 -0.22272499 -0.0043601277 -0.97487158 0.0066068098
-0.65903187 0.51105541 1.4486915 -0.24743335 -0.00028780129 -0.96890485 0.0068653356
-0.64908588 0.51105541 1.4486915 -0.2581183 0.0025718529 -0.96610987 0.0061784913
-0.63819742 0.51030177 1.4465553 -0.2698631 0.0192085 -0.9627071 0.0064294785
-0.62402469 0.50685668 1.4367895 -0.31503776 0.040043991 -0.94823402 0.0039055638
-0.61416042 0.50685668 1.4367895 -0.3307777 0.047238588 -0.94252568 0.0029013515
-0.60352606 0.50621074 1.4349585 -0.338725 0.051231828 -0.9394896 0.0030238046
-0.59165418 0.50448823 1.4300755 -0.34780991 0.060527466 -0.93560928 0.0032372838
-0.57984936 0.50276566 1.4251926 -0.35344055 0.062768228 -0.93334877 0.0030335186
-0.56774545 0.50072014 1.4193943 -0.34780017 0.062109455 -0.9355092 0.0027125636
-0.55350155 0.49668297 1.4079499 -0.36475539 0.068518721 -0.92857885 0.0026978902
-0.54206711 0.49506807 1.4033723 -0.37835398 0.070317067 -0.92298633 0.0024024372
-0.53208494 0.49474511 1.4024568 -0.38353029 0.078849249 -0.92015612 0.0024022039
-0.52245641 0.49474511 1.4024568 -0.37953576 0.080488361 -0.92166924 0.0027109778
-0.51282781 0.49474511 1.4024568 -0.38155749 0.079977177 -0.92087865 0.0026847748
-0.49920261 0.49081555 1.3913176 -0.37849399 0.08129736 -0.92202652 0.0025052547
-0.48578402 0.48693985 1.3803312 -0.38792211 0.08584258 -0.91768593 0.0023409717
-0.47630736 0.48693985 1.3803312 -0.39081785 0.084793262 -0.91655415 0.0024243793
-0.46683073 0.48693985 1.3803312 -0.38342556 0.085419953 -0.91961306 0.002625121
-0.45543286 0.48489434 1.3745327 -0.3712638 0.076851033 -0.92534161 0.0024625775
-0.44267878 0.48128778 1.3643092 -0.37344146 0.06380973 -0.92545652 0.0020161029
-0.43331215 0.48128778 1.3643092 -0.37220356 0.061090726 -0.92613846 0.0021188273
-0.42228594 0.47940376 1.3589685 -0.36957639 0.058335342 -0.92736739 0.0015679003
-0.41295594 0.47940376 1.3589685 -0.37055582 0.046672456 -0.9276368 0.0016045893
-0.40054417 0.47574335 1.3485924 -0.35756457 0.040881839 -0.93299317 0.0018915723
-0.38978013 0.47391316 1.3434043 -0.36601824 0.035409838 -0.92993379 0.0013098009
-0.37913057 0.4721368 1.3383688 -0.36687225 0.040943503 -0.92936993 0.0017177914
-0.36989984 0.47208297 1.3382162 -0.36026147 0.044417985 -0.93179321 0.0012260564
-0.35935503 0.47030661 1.3331808 -0.35852396 0.047299877 -0.93232143 0.00093165267
-0.3488794 0.46853024 1.3281453 -0.37424129 0.045675345 -0.92620575 0.00065656292
-0.33878514 0.46718451 1.3243306 -0.39975446 0.046110883 -0.91546172 0.0013413788
-0.32938907 0.46675387 1.3231097 -0.41195062 0.044125322 -0.91013712 0.0013450707
-0.31912321 0.46503133 1.3182269 -0.42441928 0.03892475 -0.90462869 0.0010426673
-0.30809888 0.4620707 1.3098345 -0.41564828 0.030403299 -0.90901715 0.0013171375
-0.29767761 0.45986372 1.3035783 -0.40563655 0.03117799 -0.91350257 0.0010791402
-0.28764638 0.45814118 1.2986953 -0.39866996 0.025849078 -0.91673011 0.00076858886
-0.27814072 0.45717224 1.2959487 -0.39146304 0.027310876 -0.91978848 0.00047144902
-0.26883128 0.45647246 1.2939651 -0.36853135 0.020910041 -0.92938006 0.00029545982
-0.25936517 0.4554497 1.2910658 -0.36543229 0.021448735 -0.93059081 0.00078802556
-0.24872497 0.45221996 1.2819104 -0.35717615 0.024002831 -0.93372858 0.0011242339
-0.2395242 0.45146635 1.2797742 -0.37293047 0.023915071 -0.92755097 0.0018077716
-0.23027024 0.45055124 1.2771801 -0.39068744 0.030706111 -0.92001116 0.0020276823
-0.22076079 0.44904402 1.2729076 -0.42847794 0.033298373 -0.90293843 0.0047521116
-0.21131001 0.4475368 1.268635 -0.54613298 0.023751145 -0.83736169 0.018999495
-0.20216158 0.44656789 1.2658885 -0.56942391 0.029602896 -0.82151079 0.020907417
-0.19207138 0.44333813 1.2567331 -0.70587456 0.043087952 -0.70702517 0.029149015
-0.17729586 0.42848122 1.2146181 -0.82899427 0.13181669 -0.5435006 0.023351936
-0.16706783 0.42369044 1.2010376 -0.84538078 0.18805461 -0.49996674 0.016502246
-0 0 0 0 0 0 0
-0.1249415 0.35155916 0.99656671 -0.81652975 0.3872484 -0.42815635 0.11921468
-0.11768368 0.35032108 0.99305713 -0.77283239 0.383912 -0.50531352 0.13566814
-0.10960525 0.34633774 0.98176545 -0.66778016 0.34867629 -0.65764308 0.14658576
-0.10238531 0.34472284 0.97718775 -0.52838659 0.35987455 -0.76895899 0.12989332
-0.095407523 0.3437539 0.97444111 -0.48317099 0.25911233 -0.83630526 0.15445744
-0.087939531 0.34073949 0.96589607 -0.43790478 0.13515228 -0.88880444 0.13517188
-0.081102669 0.3398782 0.96345466 -0.38817912 0.15436986 -0.90856314 0.13011765
-0.074086979 0.33804801 0.95826656 -0.36188588 0.080592752 -0.9287321 0.10934502
-0.067121021 0.33611014 0.95277333 -0.37931377 0.086298227 -0.92123491 0.11074539
-0.060279008 0.33444145 0.94804305 -0.36839145 0.11671025 -0.92231584 0.099970669
-0.053484634 0.33266509 0.94300753 -0.34040231 0.13864332 -0.93000233 0.086178884
-0.046767008 0.33094254 0.93812466 -0.35784042 0.13289656 -0.92427742 0.077035412
-0.040326327 0.33094254 0.93812466 -0.36811209 0.090053327 -0.92541015 0.093883298
-0.033791948 0.33002743 0.9355306 -0.3865028 0.014598291 -0.92217273 0.098788746
-0.027369076 0.33002743 0.9355306 -0.40433732 -0.0046638516 -0.91459811 0.1129048
-0.020792464 0.32760513 0.92866409 -0.39819962 0.036318865 -0.91657954 0.090116858
-0.014409628 0.32744363 0.92820632 -0.37824649 0.0045137708 -0.92569393 0.086685352
-0.0080159009 0.32658237 0.92576486 -0.36322179 -0.044180162 -0.93065464 0.073779941
-0.0016556979 0.32572109 0.92332339 -0.38109353 -0.15850948 -0.91084713 0.077931531
0.0046601463 0.32410622 0.9187457 -0.39581001 -0.18984573 -0.8984949 0.0808286
0.01096596 0.32405239 0.91859311 -0.3790586 -0.2327373 -0.89562714 0.079238303
0.017223772 0.32313728 0.91599905 -0.37849358 -0.30157667 -0.87509662 0.073381595
0.023461632 0.32243752 0.91401541 -0.37430075 -0.31064534 -0.87372667 0.071146682
0.029682184 0.32184538 0.91233695 -0.35600385 -0.34416613 -0.86879855 0.066835903
0.03595183 0.32189921 0.91248953 -0.33777359 -0.37102386 -0.86501461 0.062753841
0.042082381 0.32087645 0.9095903 -0.34522188 -0.40423307 -0.84700501 0.056940392
0.048197445 0.32001519 0.90714884 -0.33175382 -0.39968693 -0.85451138 0.053780477
0.054507855 0.32049966 0.90852219 -0.34032157 -0.42198211 -0.84030491 0.049800575
0.060806517 0.32082263 0.90943772 -0.34805089 -0.40828723 -0.84389693 0.048890956
0.066836499 0.31979987 0.90653849 -0.34833911 -0.42838591 -0.83375376 0.037720639
0.073023431 0.3196384 0.90608072 -0.36323881 -0.40855268 -0.83734238 0.036981065
0.079551056 0.32087645 0.9095903 -0.3713544 -0.36956769 -0.85177207 0.046341226
0.085709475 0.32055348 0.90867478 -0.35735294 -0.36277384 -0.86063582 0.044848114
0.091422997 0.31872329 0.90348667 -0.36439785 -0.40135512 -0.84031439 0.038339756
0.097032301 0.31678542 0.89799345 -0.36130422 -0.42390722 -0.83051908 0.032140501
0.10339035 0.31737757 0.89967191 -0.36652136 -0.37317979 -0.85229039 0.036521163
0.10967854 0.31770054 0.9005875 -0.38321981 -0.35288766 -0.85358822 0.036044404
0.11491922 0.31511673 0.89326316 -0.38614556 -0.35684881 -0.85061771 0.031765629
0.12026612 0.31307122 0.8874647 -0.38482434 -0.34534934 -0.8559463 0.031280112
0.12614174 0.31253293 0.88593882 -0.39664274 -0.32380033 -0.85896915 0.030952673
0.13124487 0.31021827 0.87937742 -0.4009991 -0.29164481 -0.8684141 0.034325
0.13673434 0.3089802 0.87586784 -0.37998271 -0.26810923 -0.88528562 0.037627038
0.14259838 0.3086572 0.87495232 -0.35716307 -0.25032553 -0.89987308 0.042208336
0.14826845 0.30795744 0.87296861 -0.36499688 -0.22391257 -0.90368164 0.041225154
0.15385734 0.30714998 0.8706798 -0.32405689 -0.21972965 -0.92016631 0.054282915
0.15910667 0.30575043 0.86671245 -0.26722887 -0.23518018 -0.93449402 0.060816724
0 0 0 0 0 0 0
0.18121372 0.32399857 0.91844052 0.20238595 -0.97837019 -0.042799279 0.025946647
0.1880489 0.32491365 0.92103457 0.14122418 -0.98978013 -0.01977312 0.015577658
0.19321297 0.32297581 0.91554129 0.12604499 -0.99192381 -0.014137992 0.013393194
0.1990331 0.3222222 0.91340506 0.086343996 -0.99611461 -0.017332412 0.010401923
0.20647018 0.32405239 0.91859311 0.030758629 -0.99933839 -0.01940657 0.00068337918
0.21369573 0.32545194 0.92256045 0.026508719 -0.99939394 -0.022562392 0.00071424543
0.22002956 0.32545194 0.92256045 0.023541732 -0.99946159 -0.022857729 0.00071172178
0.22718708 0.3266362 0.92591745 -0.0017009644 -0.99996626 -0.0080381697 0.0040488709
0.23154259 0.32383707 0.91798276 -0.038694654 -0.99918407 0.011570051 0.013466041
0.23827986 0.32442918 0.91966122 -0.047022711 -0.99884105 0.010261082 0.015482386
0.24544604 0.32555962 0.92286563 -0.058449589 -0.99785972 0.029318077 0.018102812
0.2515738 0.32529047 0.92210269 -0.10926481 -0.99236423 0.057221252 0.029679639
0.25858733 0.32615173 0.92454416 -0.14549944 -0.98685896 0.070281096 0.038077403
0.2652846 0.32658237 0.92576486 -0.17611927 -0.98007321 0.091861904 0.04512931
0.27164042 0.32658237 0.92576486 -0.17589951 -0.98084748 0.083652005 0.047406904
0.27762967 0.32615173 0.92454416 -0.22290139 -0.97092426 0.087298945 0.056852873
0.27211934 0.31253293 0.88593882 -0.72135556 -0.36312589 -0.5897336 0.13674197
0.27753091 0.31177932 0.88380253 -0.61351389 -0.25312391 -0.74801672 0.096363232
0.28193387 0.3099491 0.87861449 -0.62681848 -0.21328329 -0.74940568 0.079323523
0.28676572 0.3086572 0.87495232 -0.62892073 -0.16442849 -0.75988287 0.049418885
0.29149622 0.30731148 0.87113756 -0.6504274 -0.1415884 -0.74625528 0.042853884
0.29607013 0.30585808 0.86701763 -0.67339391 -0.071672633 -0.73580134 0.019985162
0.30058745 0.30440471 0.86289769 -0.67392397 -0.043295696 -0.73753095 0.015145927
0.30472299 0.30262834 0.85786223 -0.67545527 -0.014799663 -0.73725235 0.010268221
0.30889991 0.30095962 0.85313189 -0.66705805 -0.0084414985 -0.74495786 0.010828418
0.31385633 0.30009836 0.85069048 -0.58039814 -0.0017871944 -0.81433094 0.045182701
0.31757498 0.29810667 0.84504461 -0.53609884 -0.010384686 -0.84409136 0.049987927
0.32250074 0.29729924 0.84275579 -0.49619678 0.0059991158 -0.86818945 0.049163789
0.32573074 0.29498458 0.8361944 -0.50865662 0.022473434 -0.86067611 0.045508105
0.33195552 0.29541519 0.8374151 -0.47696665 0.039578922 -0.87802988 0.072498806
0.343366 0.3003675 0.85145342 0.42208236 -0.068481497 -0.9039672 0.14473364
0.3584739 0.30833423 0.87403679 0.60424739 -0.16647159 -0.77921259 0.074691817
0.3689287 0.31210229 0.88471806 0.67730552 -0.11105351 -0.72727191 0.072594449
0.39945099 0.33244976 0.94239718 -0.71316314 -0.69865245 -0.057299614 0.13415866
0.40388352 0.33078104 0.93766689 -0.89648712 -0.38508752 0.21913122 0.12060803
0 0 0 0 0 0 0
0 0 0 0 0 0 0
0.36575991 0.28588742 0.81040663 -0.56576693 0.11197753 -0.81692654 0.020986084
0.37132373 0.28588742 0.81040663 -0.56274062 0.1209913 -0.81773108 0.020285228
0.37518445 0.28459552 0.80674452 -0.47162107 0.1273962 -0.87255019 0.012285048
0.38065115 0.2845417 0.80659187 -0.49490491 0.12338913 -0.86014199 0.014924838
0.38618878 0.2845417 0.80659187 -0.34644344 0.13618468 -0.92813289 0.0088787712
0 0 0 0 0 0 0
0 0 0 0 0 0 0
0 0 0 0 0 0 0
0 0 0 0 0 0 0
0 0 0 0 0 0 0
0 0 0 0 0 0 0
0 0 0 0 0 0 0
0 0 0 0 0 0 0
0 0 0 0 0 0 0
0 0 0 0 0 0 0
0 0 0 0 0 0 0
-0 0 0 0 0 0 0
-0 0 0 0 0 0 0
-0 0 0 0 0 0 0
-0 0 0 0 0 0 0
-0 0 0 0 0 0 0
-0 0 0 0 0 0 0
-0 0 0 0 0 0 0
-0 0 0 0 0 0 0
-0 0 0 0 0 0 0
-0.69126421 0.52281117 1.453727 -0.21596262 -0.0073477789 -0.97637397 0.0062044021
-0.68171275 0.52314043 1.4546425 -0.21776697 -0.0058267089 -0.97598344 0.0062874597
-0.67172593 0.52314043 1.4546425 -0.2285527 -0.0065021506 -0.97350991 0.0068719909
-0.66173905 0.52314043 1.4546425 -0.23386241 -0.004328697 -0.97226006 0.0073628174
-0.64908588 0.52100021 1.4486915 -0.24345611 0.0074683153 -0.96988314 0.0074580722
-0.63913995 0.52100021 1.4486915 -0.2553007 0.015764389 -0.96673322 0.0073559196
-0.62660933 0.51886004 1.4427406 -0.29549325 0.026878871 -0.95496666 0.004883064
-0.61585629 0.51814663 1.4407568 -0.31816658 0.043732185 -0.9470256 0.0036210737
-0.60185742 0.51463449 1.4309911 -0.33590823 0.056191575 -0.94021708 0.003372245
-0.59203297 0.51463449 1.4309911 -0.34428856 0.059555978 -0.93697309 0.0034027619
-0.57984936 0.51254916 1.4251926 -0.35006222 0.06567543 -0.9344213 0.0033905986
-0.56774545 0.51046389 1.4193943 -0.34313184 0.067374669 -0.93686771 0.0031825965
-0.55578107 0.50843346 1.4137484 -0.35739082 0.066047482 -0.9316166 0.0030090809
-0.54607499 0.50843346 1.4137484 -0.36691532 0.072906926 -0.9273929 0.0027184938
-0.53237438 0.50464696 1.4032197 -0.37872434 0.078331664 -0.92218876 0.0026104897
-0.52239954 0.5043177 1.4023041 -0.37911463 0.08050105 -0.9218415 0.002441312
-0.50903368 0.50064093 1.3920805 -0.37827122 0.081892371 -0.92206532 0.0024516059
-0.4994216 0.50058603 1.391928 -0.37988591 0.080657206 -0.92151016 0.0026764348
-0.48798579 0.49866536 1.3865873 -0.38719118 0.085566372 -0.91802037 0.0024550185
-0.4766233 0.49674466 1.3812467 -0.38690791 0.083396867 -0.91833931 0.0022262519
-0.46683073 0.49641541 1.3803312 -0.3872802 0.083789036 -0.91814679 0.0023298678
-0.45558453 0.49449474 1.3749905 -0.37982383 0.078331672 -0.92173642 0.0020137927
-0.44267878 0.49065337 1.3643092 -0.37857845 0.067166053 -0.92312896 0.0019861255
-0.43331215 0.49065337 1.3643092 -0.37449074 0.065630719 -0.92490506 0.0020737001
-0.42228594 0.48873267 1.3589685 -0.37766483 0.054409519 -0.92434239 0.0013644936
-0.41161126 0.48714125 1.3545433 -0.37159586 0.041966196 -0.92744559 0.0015159989
-0.40077078 0.48527542 1.3493553 -0.36299574 0.03443177 -0.93115443 0.0014564546
-0.39004579 0.48346451 1.3443198 -0.36579013 0.033178098 -0.93010581 0.0013896043
-0.38055703 0.48313522 1.3434043 -0.36622387 0.035822537 -0.92983699 0.0016485801
-0.36989984 0.48126942 1.3382162 -0.36193219 0.035386849 -0.9315325 0.0014962422
-0.35964295 0.47984263 1.3342489 -0.361963 0.039870072 -0.93133944 0.0009295356
-0.3488794 0.47764754 1.3281453 -0.38048473 0.040633306 -0.92389411 0.00095572026
-0.33976102 0.47764754 1.3281453 -0.39039358 0.045072731 -0.9195441 0.0012373085
-0.32938907 0.47583663 1.3231097 -0.41365737 0.044833947 -0.90932798 0.0013788736
-0.31912321 0.47408056 1.3182269 -0.42222628 0.039520334 -0.90562862 0.00094493583
-0.30781174 0.47062331 1.3086138 -0.4154965 0.037514474 -0.90882087 0.0014183065
-0.29694584 0.46765998 1.3003738 -0.40791973 0.031955793 -0.91245836 0.0011242123
-0.28764638 0.46705633 1.2986953 -0.4060213 0.026520355 -0.91347867 0.0010194444
-0.27810797 0.46601367 1.2957962 -0.39244637 0.022234963 -0.91950607 0.0004605194
-0.26883128 0.46535516 1.2939651 -0.37461713 0.023361187 -0.92688525 0.0002566253
-0.25939581 0.46436736 1.2912184 -0.35785678 0.021717075 -0.93352383 0.00051181763
-0.24922828 0.46195281 1.2845044 -0.35451594 0.028015403 -0.93463016 0.00087260199
-0.23992403 0.4610199 1.2819104 -0.35965425 0.028295739 -0.93265653 0.0011521736
-0.23032527 0.45942846 1.2774854 -0.39221624 0.026237477 -0.91949886 0.0027224964
-0.22110482 0.45849556 1.2748913 -0.40909192 0.027385684 -0.91208208 0.0024210042
-0.21085252 0.45525783 1.2658885 -0.54909128 0.016809864 -0.83559334 0.018593065
-0.2018448 0.45454443 1.2639048 -0.59069622 0.0092540011 -0.80684096 0.022854349
-0.19181485 0.45136157 1.2550546 -0.70436549 0.01994082 -0.70955729 0.029441088
-0.1798573 0.44313005 1.2321661 -0.78319103 0.061285321 -0.61875355 0.029146397
-0.16541222 0.4276548 1.1891356 -0.84879231 0.19920257 -0.48976523 0.015562708
-0.15510935 0.42183787 1.172961 -0.89018685 0.023126908 -0.45500833 0.035218284
-0 0 0 0 0 0 0
-0.11743052 0.35636985 0.9909209 -0.74183661 0.40614152 -0.5335986 0.11515042
-0.10994595 0.35417479 0.98481727 -0.65746355 0.39387527 -0.64234263 0.10976907
-0.10267309 0.35241872 0.97993439 -0.54838568 0.4129172 -0.72716749 0.093862422
-0.095885605 0.35219923 0.97932404 -0.50997663 0.41116095 -0.75555974 0.10624787
-0.088717513 0.35044315 0.97444111 -0.46622443 0.40778297 -0.78507823 0.11487137
-0.081577927 0.34852248 0.96910048 -0.42229673 0.3650611 -0.82969624 0.11200593
-0.07488919 0.34835786 0.96864271 -0.34587157 0.32892901 -0.87873697 0.11069241
-0.068034746 0.34731519 0.96574348 -0.38518196 0.2001664 -0.90087074 0.12451978
-0.060919344 0.34457135 0.95811397 -0.38334557 0.12651388 -0.91489905 0.11971034
-0.054194301 0.34363845 0.95551997 -0.38004133 0.1265395 -0.91627306 0.12378595
-0.047124531 0.33996171 0.94529641 -0.36269134 0.15374778 -0.91913909 0.075551517
-0.040614937 0.33979708 0.94483864 -0.3690342 0.16246091 -0.91510671 0.092143059
-0.033957299 0.33809587 0.94010836 -0.39247215 0.079216339 -0.91634619 0.09289398
-0.027373541 0.33650446 0.93568325 -0.40932834 0.045831993 -0.91123533 0.097855583
-0.020840295 0.33474839 0.93080032 -0.40219301 0.1003603 -0.91003764 0.08410047
-0.014409628 0.33381549 0.92820632 -0.40207434 0.083311878 -0.91180891 0.081212007
-0.0080159009 0.33293748 0.92576486 -0.39088035 0.079429477 -0.91700792 0.067485876
-0.0016521409 0.33134604 0.92133975 -0.38901994 -0.013295277 -0.92113334 0.076591551
0.0046493104 0.32964486 0.91660947 -0.38374546 -0.10820834 -0.91707706 0.07981436
0.010934993 0.32942536 0.91599905 -0.39037997 -0.11099569 -0.91393846 0.079020128
0.017180733 0.32860219 0.91371024 -0.38432962 -0.15725878 -0.90970349 0.078590058
0.023391129 0.32772416 0.91126877 -0.36808372 -0.20733711 -0.90638047 0.07628575
0.02953325 0.326462 0.90775919 -0.37005666 -0.2370787 -0.89824933 0.077488855
0.035651229 0.32541934 0.90486002 -0.34169844 -0.269862 -0.90023136 0.076995492
0.041835297 0.32519984 0.90424961 -0.36775607 -0.29890433 -0.88057464 0.073329933
0.048059624 0.3253096 0.90455484 -0.37434632 -0.28970397 -0.88087255 0.07373374
0.054059271 0.32404742 0.90104526 -0.35268435 -0.32343778 -0.87806708 0.068406232
0.060153563 0.32355353 0.89967191 -0.34447125 -0.35982656 -0.86710113 0.058725629
0.066285245 0.32333404 0.89906156 -0.35015377 -0.35422695 -0.8671307 0.056544188
0.072187193 0.32212675 0.89570457 -0.36553806 -0.3632372 -0.85699517 0.052403115
0.078283258 0.32190722 0.89509422 -0.36601117 -0.38267043 -0.84829187 0.050973024
0.084370941 0.32168773 0.89448386 -0.35840794 -0.38297263 -0.85139632 0.049251094
0.090650976 0.32218161 0.89585716 -0.36173066 -0.37454262 -0.85373807 0.0491331
0.096801467 0.32218161 0.89585716 -0.35377538 -0.36048052 -0.863074 0.048528463
0.10288182 0.32196212 0.8952468 -0.37957886 -0.37528715 -0.84562367 0.045856897
0.10910246 0.32218161 0.89585716 -0.3850621 -0.38086367 -0.84063667 0.040707104
0.1151548 0.32190722 0.89509422 -0.39857075 -0.36134997 -0.84295171 0.037945107
0.12076242 0.32048044 0.89112687 -0.3805798 -0.37527415 -0.84517944 0.032748427
0.1264459 0.31938291 0.88807505 -0.37657106 -0.3746908 -0.84723139 0.030249413
0.13176867 0.3175171 0.88288701 -0.39047882 -0.35662416 -0.84873164 0.033424467
0.13747279 0.31669393 0.88059813 -0.38826162 -0.32254258 -0.86326075 0.040268254
0.14317037 0.31592566 0.8784619 -0.35060892 -0.30758524 -0.88457036 0.043749303
0.14865719 0.31477326 0.87525749 -0.27534133 -0.30718884 -0.91094583 0.072107762
0.1535068 0.31241354 0.86869609 -0.26032531 -0.29722598 -0.91863346 0.060770933
0.15865847 0.31082213 0.86427099 -0.26538742 -0.25262702 -0.9304564 0.063358977
0.17165354 0.32415718 0.90135044 0.29660591 -0.90975481 -0.29046714 0.094495706
0.17907614 0.32640713 0.9076066 0.22106163 -0.96859854 -0.1137917 0.044451322
0.18589923 0.3274498 0.91050583 0.17818701 -0.98218691 -0.059650704 0.023530236
0.19121642 0.32585835 0.90608072 0.13513497 -0.98977041 -0.045748908 0.01892494
0.19710462 0.3253096 0.90455484 0.084668115 -0.99602872 -0.027534099 0.0096783731
0.20259458 0.32415718 0.90135044 0.024534781 -0.99904847 -0.036058716 0.0019389165
0.21012589 0.32624251 0.90714884 0.030279709 -0.99920243 -0.026030784 0.00090218213
0.21675423 0.32684615 0.90882736 0.027709277 -0.99942213 -0.019684253 0.00077585003
0.22333074 0.32734004 0.91020066 0.00060720893 -0.99994707 -0.010271567 0.0043901713
0.22915635 0.32673639 0.90852219 -0.028404603 -0.99959451 -0.0020046108 0.0094558075
0.23531471 0.32662663 0.90821701 -0.051585253 -0.9986673 0.0016092731 0.016410898
0.24183415 0.32701078 0.90928513 -0.094995394 -0.99503022 0.029846797 0.029815333
0.24774379 0.32657176 0.90806437 -0.12982933 -0.99101204 0.032239258 0.03876387
0.25414881 0.32679126 0.90867478 -0.20249015 -0.97849154 0.03939449 0.061910044
0.26126182 0.32788882 0.91172653 -0.21282765 -0.9756344 0.053309288 0.064448446
0.26676011 0.32695588 0.90913254 -0.28962019 -0.95668381 0.029602436 0.082158685
0.27190205 0.32563886 0.90547037 -0.46623686 -0.88172168 -0.072041996 0.12557413
0.27254117 0.31910852 0.88731211 -0.64791375 -0.57611221 -0.4982996 0.14918639
0.27753091 0.31784636 0.88380253 -0.62829471 -0.35655284 -0.69145924 0.12294417
0.28188491 0.31592566 0.8784619 -0.577084 -0.32390603 -0.74970597 0.098350786
0.28676572 0.3146635 0.87495232 -0.61556607 -0.24918228 -0.74765408 0.068916202
0.29149622 0.31329158 0.87113756 -0.64158893 -0.2073947 -0.7384789 0.051842615
0.29586169 0.3115904 0.86640728 -0.67269522 -0.17775303 -0.71825141 0.043801639
0.29984328 0.30955994 0.8607614 -0.68024963 -0.14914827 -0.71764553 0.035173923
0.30504823 0.30884656 0.85877776 -0.67790663 -0.11546795 -0.72602332 0.029504366
0.30945241 0.30736488 0.85465783 -0.65859997 -0.088968761 -0.74721527 0.029673466
0.31385633 0.30593809 0.85069048 -0.57883137 -0.076390594 -0.81186128 0.055863403
0.31849247 0.30478567 0.84748608 -0.48770931 -0.045930259 -0.87179703 0.07000906
0.32255912 0.30313936 0.84290838 -0.47185948 -0.0083803795 -0.88163394 0.064148091
0.32620627 0.30116382 0.8374151 -0.4643791 0.016295675 -0.8854866 0.060318045
0.33328626 0.30237108 0.84077209 -0.29914266 0.076632597 -0.95112622 0.098920904
0.34435058 0.30709049 0.85389489 0.45090398 -0.19725952 -0.87050229 0.13825731
0.35884941 0.3146635 0.87495232 0.61028922 -0.15761068 -0.77634132 0.085073523
0.3670198 0.3165293 0.88014036 0.66007566 -0.18687867 -0.72758263 0.095806092
0.38793832 0.32915097 0.91523612 0.79182607 -0.17699604 -0.58453739 0.076009423
0.39783677 0.3321692 0.92362857 0.85920227 -0.11984704 -0.49740136 0.053681996
0.35690254 0.29331642 0.81559473 -0.54397047 0.12050945 -0.83040565 0.025841739
0.36026388 0.29150549 0.81055927 -0.54269463 0.11567946 -0.83192599 0.023016907
0.36575991 0.29145062 0.81040663 -0.56018037 0.12594028 -0.81874108 0.023543512
0.37132373 0.29145062 0.81040663 -0.57674563 0.11926802 -0.8081705 0.022226328
0.37688759 0.29145062 0.81040663 -0.59088695 0.12166443 -0.79752761 0.021803059
0.38158727 0.29079211 0.80857557 -0.55272388 0.1392878 -0.82164174 0.020554982
0.38713855 0.29079211 0.80857557 -0.51641178 0.14252675 -0.84439623 0.017707879
0 0 0 0 0 0 0
0 0 0 0 0 0 0
0 0 0 0 0 0 0
0 0 0 0 0 0 0
0 0 0 0 0 0 0
0 0 0 0 0 0 0
0 0 0 0 0 0 0
0 0 0 0 0 0 0
0 0 0 0 0 0 0
0 0 0 0 0 0 0
0 0 0 0 0 0 0
-0 0 0 0 0 0 0
-0 0 0 0 0 0 0
-0 0 0 0 0 0 0
-0 0 0 0 0 0 0
-0 0 0 0 0 0 0
-0 0 0 0 0 0 0
-0 0 0 0 0 0 0
-0 0 0 0 0 0 0
-0 0 0 0 0 0 0
-0.68886977 0.53094506 1.4486915 -0.21783067 -0.0067879828 -0.975963 0.006420759
-0.68171275 0.53312612 1.4546425 -0.22676367 -0.0086387433 -0.97391152 0.0069526983
-0.67172593 0.53312612 1.4546425 -0.23110516 -0.0074629681 -0.97290009 0.0073216083
-0.66173905 0.53312612 1.4546425 -0.22881019 -0.0043315496 -0.97346145 0.0070085875
-0.65031654 0.53195167 1.4514382 -0.24082421 0.0013090443 -0.97056782 0.0078499345
-0.63913995 0.53094506 1.4486915 -0.25419685 0.0041739792 -0.96714354 0.0072694607
-0.62402469 0.52658296 1.4367895 -0.29252812 0.026006585 -0.95590323 0.0051980908
-0.61409521 0.52652705 1.4366369 -0.31126395 0.040007852 -0.94948101 0.0041161142
-0.60185742 0.52445781 1.4309911 -0.33234343 0.058418658 -0.94134754 0.0035673357
-0.59026533 0.52289194 1.4267186 -0.34486017 0.067137554 -0.93625003 0.0034897695
-0.57984936 0.52233273 1.4251926 -0.34733039 0.0704045 -0.93509614 0.0033849704
-0.56798959 0.52043128 1.4200046 -0.3478168 0.071942538 -0.93479818 0.0031012238
-0.55800056 0.52020758 1.4193943 -0.35536933 0.072334751 -0.93192291 0.0029822087
-0.54825574 0.52020758 1.4193943 -0.36238688 0.066935159 -0.92962116 0.0028181702
-0.53387958 0.51573366 1.407187 -0.37403798 0.079220496 -0.92402363 0.0026275562
-0.52245641 0.514 1.4024568 -0.3789897 0.083766796 -0.92160189 0.0024660043
-0.51282781 0.514 1.4024568 -0.37932473 0.084892958 -0.92136091 0.0024822322
-0.50117356 0.51193082 1.3968109 -0.37843013 0.083201341 -0.92188293 0.0025512623
-0.48975793 0.51002938 1.3916228 -0.38425002 0.082047656 -0.91957611 0.0024574616
-0.47820291 0.50790423 1.3858243 -0.39265737 0.084646747 -0.91578114 0.0020004436
-0.46517932 0.5041014 1.3754482 -0.38703993 0.080041513 -0.91858232 0.0024289291
-0.45381498 0.50197625 1.3696498 -0.38075387 0.077371739 -0.92143375 0.0018961804
-0.44267878 0.50001895 1.3643092 -0.38179126 0.072518386 -0.92139918 0.0018943198
-0.43331215 0.50001895 1.3643092 -0.38271287 0.064442463 -0.92161703 0.0020908562
-0.42252302 0.4983412 1.3597314 -0.38506195 0.058471493 -0.92103654 0.0015890031
-0.41137943 0.49616015 1.3537804 -0.37641567 0.046043225 -0.92530608 0.0015296768
-0.40054417 0.49425873 1.3485924 -0.36771184 0.03534656 -0.92926776 0.0016070711
-0.39004579 0.49269286 1.3443198 -0.36308903 0.031773668 -0.9312126 0.0013002875
-0.38055703 0.49235731 1.3434043 -0.36631912 0.034420963 -0.92985243 0.0013341502
-0.36989984 0.49045587 1.3382162 -0.36299008 0.033501968 -0.93119055 0.0014232507
-0.35935503 0.48861039 1.3331808 -0.36665341 0.036168303 -0.9296543 0.0010918749
-0.35020211 0.48861039 1.3331808 -0.37351859 0.036881655 -0.92688918 0.00062006788
-0.34011233 0.48726818 1.3295186 -0.39358932 0.039040938 -0.91845697 0.0013534839
-0.32973096 0.4854227 1.3244832 -0.41606018 0.041954786 -0.90836871 0.0013363264
-0.31945568 0.48363313 1.3196002 -0.41940904 0.040099096 -0.90691131 0.00098421902
-0.30773994 0.47949472 1.3083085 -0.41337228 0.036939424 -0.90981245 0.0014572613
-0.29767761 0.47776106 1.3035783 -0.41152203 0.032980416 -0.9108029 0.0013609078
-0.28764638 0.47597149 1.2986953 -0.40793952 0.024823643 -0.91267145 0.00077196094
-0.27810797 0.47490892 1.2957962 -0.39236853 0.029301222 -0.91934127 0.00046814658
